# .PCD v0.7 - Point Cloud Data file format
VERSION 0.7
FIELDS x y z intensity
SIZE 4 4 4 4
TYPE F F F F
COUNT 1 1 1 1
WIDTH 63
HEIGHT 1
VIEWPOINT 0 0 0 1 0 0 0
POINTS 63
DATA ascii
-715.69745 -83.213295 47.164639 0
-714.19818 -83.229431 47.155121 0
-712.6969 -83.229431 47.15033 0
-711.19897 -83.229431 47.154015 0
-682.33167 -82.578339 47.265224 0
-681.19922 -82.780273 47.226894 0
-679.69397 -82.770996 47.206188 0
-678.19714 -82.629517 47.211857 0
-676.69763 -82.574203 47.213779 0
-670.69885 -82.343018 47.207024 0
-669.2002 -82.343018 47.209229 0
-667.69763 -82.235039 47.222923 0
-666.19818 -82.206421 47.237408 0
-664.69763 -82.146759 47.246078 0
-663.19714 -82.097244 47.250095 0
-661.69763 -82.047394 47.257462 0
-660.19861 -81.988052 47.259758 0
-658.69745 -81.936302 47.257992 0
-657.1958 -81.936302 47.246979 0
-655.69543 -81.936302 47.250423 0
-654.19775 -81.936302 47.24934 0
-652.6991 -81.936302 47.24308 0
-651.19714 -81.936302 47.247044 0
-649.69556 -81.936302 47.254509 0
-648.80634 -81.936302 47.258865 0
-646.51392 -81.936302 47.311543 0
-644.5929 -81.936302 47.271915 0
-643.69824 -81.936302 47.267712 0
-642.85986 -81.936302 47.263004 0
-639.02173 -81.373917 47.28791 0
-637.69983 -81.364105 47.287704 0
-636.53503 -81.364105 47.296402 0
-634.08398 -81.364105 47.25946 0
-633.19629 -81.364105 47.248798 0
-631.69788 -81.364105 47.246052 0
-630.7121 -81.364105 47.239029 0
-628.19788 -81.364105 47.279827 0
-627.19727 -81.337158 47.264454 0
-625.69824 -81.337158 47.233273 0
-624.19739 -81.397041 47.319561 0
-600.19757 -81.4245 47.378952 0
-598.69751 -81.753754 47.361969 0
-597.19763 -81.776352 47.364223 0
-595.69861 -81.819763 47.355854 0
-594.19733 -81.819763 47.356243 0
-592.70709 -81.819763 47.345535 0
-591.65149 -81.819763 47.321503 0
-586.14282 -81.819763 47.310734 0
-585.19763 -81.819763 47.317173 0
-583.69775 -81.819763 47.326839 0
-582.19775 -81.819763 47.330688 0
-580.69788 -81.819763 47.325039 0
-579.19794 -81.819763 47.30727 0
-577.69812 -81.819763 47.280731 0
-576.45874 -81.819763 47.270157 0
-570.19415 -82.241928 47.270172 0
-568.69775 -82.264114 47.285862 0
-567.19751 -82.378494 47.247902 0
-565.69769 -82.490082 47.166096 0
-564.19727 -82.355942 47.121117 0
-562.69775 -82.355942 47.100071 0
-561.20178 -82.355942 47.089355 0
-560.25183 -82.355942 47.073463 0
